ply
format ascii 1.0
comment PCL generated
element vertex 176
property float x
property float y
property float z
element camera 1
property float view_px
property float view_py
property float view_pz
property float x_axisx
property float x_axisy
property float x_axisz
property float y_axisx
property float y_axisy
property float y_axisz
property float z_axisx
property float z_axisy
property float z_axisz
property float focal
property float scalex
property float scaley
property float centerx
property float centery
property int viewportx
property int viewporty
property float k1
property float k2
end_header
-0.54061401 -0.0032059101 1.3272932
-0.60822117 0.25183183 1.5022727
-0.44334337 -0.18340512 1.1085109
-0.42993021 -0.074467555 1.0642126
-0.52597958 -0.019553121 1.3294613
-0.64172941 0.47921845 1.6266562
-0.52337897 0.034585431 1.3421919
-0.32385969 -0.0015710078 0.84633583
-0.30958316 -0.0080108149 0.82933915
-0.47055367 -0.13242243 1.347882
-0.28057104 0.20116057 0.76561934
-0.54595286 0.71226621 1.7093937
-0.62152982 0.11756029 1.903638
-0.62179792 0.15099443 1.9056484
-0.43105856 0.051380605 1.3368051
-0.54721165 0.20899636 1.7104686
-0.61510557 0.16440143 1.9210964
-0.58759254 0.15025105 1.9359714
-0.45273826 0.44196147 1.5229762
-0.38245738 -0.12128127 1.2688726
-0.6554243 0.15628 2.3980048
-0.54206765 0.033985928 1.9057463
-0.55125821 0.22804269 2.0052752
-0.36329228 -0.17803073 1.2552254
-0.35927343 -0.21778202 1.2767687
-0.51882887 0.83244956 1.8545789
-0.33700499 -0.083854206 1.3062226
-0.41999945 0.37613314 1.6128652
-0.46261179 -0.047584973 1.8214669
-0.36643144 0.40568024 1.5248791
-0.53955835 0.7955457 2.1098077
-0.48575491 0.88894629 2.0237741
-0.44977453 0.042442095 1.8818322
-0.29947981 -0.09896639 1.3083271
-0.34211648 0.48836511 1.5475448
-0.41126862 0.014590269 1.9031452
-0.35632324 0.36851767 1.7007836
-0.31843662 0.21572648 1.4834929
-0.22397201 -0.1235783 1.0106081
-0.40445027 0.81578106 1.9297085
-0.35678229 0.52780992 1.6316398
-0.30082896 0.18266433 1.4703315
-0.42366102 0.69807488 2.0329087
-0.20911101 -0.092829078 1.0340434
-0.4296968 0.080900498 2.1277945
-0.40415892 0.80825925 2.060091
-0.29814649 0.25200713 1.3972644
-0.19117318 -0.085698321 1.0210894
-0.31204247 0.78552544 1.7803349
-0.3888942 0.04320306 2.1209669
-0.18345806 -0.055210393 1.0122494
-0.33977279 0.7310611 2.0416725
-0.25478941 0.18623987 1.4760889
-0.32985759 0.77252775 2.0509644
-0.15644331 0.39490318 0.96140397
-0.24240351 0.12286314 1.4565922
-0.1991926 0.29342327 1.3826971
-0.29266316 0.66203111 1.9806055
-0.27623442 0.71591663 2.0043051
-0.26050422 0.74859363 2.0147233
-0.17146444 0.25941682 1.3993186
-0.17158641 0.29605156 1.3683584
-0.15823729 0.26496392 1.4170171
-0.18156873 0.74657702 1.6933527
-0.19213082 0.65394211 1.835763
-0.17162621 0.7349245 1.6122744
-0.12906313 0.21716127 1.4713261
-0.15643719 0.14020857 1.4933153
-0.11863142 0.20552304 1.3988293
-0.105149 0.17311957 1.5140232
-0.06488774 0.02809451 1.0904549
-0.084675469 0.72024375 1.6116703
-0.091341056 0.40733358 1.7403102
-0.129825 0.69244134 1.9060445
-0.052746039 -0.029387377 0.98495519
-0.061735898 0.2012158 1.3796015
-0.032285515 0.17809625 1.3967271
-0.079099625 0.67369419 2.1846318
-0.039333254 0.27021495 1.4282063
-0.033716306 0.36626592 1.6133573
-0.030720865 0.21525131 1.4327995
-0.0066742431 0.24246068 0.84700644
-0.023213005 0.73876011 1.655159
-0.0068170079 -0.064589433 0.93876743
-0.0091267368 -0.34812203 1.3127598
0.01223444 0.15832947 1.3815111
0.026613036 0.75133616 1.7041435
-0.0050147935 -0.042726044 0.93409306
0.011784433 0.61642265 1.7729144
0.022353429 0.17426717 1.4026607
0.024591183 0.64726728 1.7900306
0.022085447 -0.02357915 1.0111494
0.036096085 0.13137272 1.3854874
0.024603648 0.017546788 1.0012159
0.024289852 0.015687196 1.0010257
0.056849066 0.35180104 1.282378
0.049876209 0.1669924 1.4169869
0.0121673 0.31455237 0.9084093
0.066981241 0.19093177 1.4193331
0.045676883 -0.14803106 1.1921319
0.050694551 0.11366845 1.3847723
0.043330856 0.28176993 1.444785
0.035446547 -0.045619834 0.92309785
0.046477672 -0.17152296 0.89547586
0.041366145 0.0034471785 0.97107023
0.10190718 0.73597175 1.7262926
0.073885888 0.34811756 1.2355157
0.089189187 0.28310812 1.3622044
0.08124163 0.2811245 1.4262885
0.092694342 0.71393454 1.7970303
0.067678452 0.0243991 1.1287488
0.088653997 0.093683138 1.3924537
0.084433891 0.12924767 1.3702979
0.11126839 0.19874784 1.3837795
0.089685179 -0.37571758 1.2434983
0.10048218 0.28171819 1.1978233
0.076571427 -0.1618381 1.0327619
0.16845763 0.66313046 1.8397732
0.1764472 0.70603669 1.7331256
0.12629433 -0.17723998 1.1087158
0.14197315 0.22766866 1.2153934
0.15478127 0.4035832 1.1661683
0.15723065 0.33002093 1.1584647
0.21511365 0.68448496 1.7413909
0.12903602 -0.17416167 1.0263654
0.16870126 0.37377873 1.1582943
0.23154283 0.70231897 1.7645527
0.16265483 0.35553479 1.1575264
0.23031241 0.73966688 1.7484037
0.17358546 0.26123014 1.2219671
0.15847535 0.41037303 1.1729332
0.22050627 0.75718528 1.6609513
0.18427788 0.28775138 1.1913162
0.27627629 0.76700836 1.6698768
0.24237822 0.23048937 1.1724279
0.19046363 0.3209787 1.1272836
0.34588492 0.60941625 1.7044595
0.26053363 0.39593703 1.2669109
0.21385622 0.23784195 1.1361504
0.37553078 0.76566654 1.7296439
0.24154791 0.21621425 1.1524184
0.25811875 0.34322655 1.1339623
0.41792601 0.65815598 1.9207451
0.26135322 0.18577981 1.1418004
0.25729808 0.28431627 1.1106023
0.25852284 0.12297712 1.0528694
0.28530326 0.24335328 1.1536175
0.26544476 0.028247979 1.0420486
0.28591812 0.30177867 1.1168973
0.27483696 0.32250872 1.1040498
0.3171134 0.24742268 1.1575258
0.28903988 0.12106352 1.113028
0.27382132 0.081595995 1.0320199
0.35825908 0.40280414 1.2887373
0.26716015 -0.37870121 0.97644681
0.34028298 0.17576665 1.1772625
0.35071307 0.26452997 1.2666769
0.35860342 0.23138265 1.1960269
0.3286677 0.12366511 1.0657854
0.40630347 0.28972694 1.274043
0.68212932 0.56272632 2.2085721
0.41012257 0.34384158 1.3113884
0.50689954 0.11034165 1.6488407
0.39069435 0.18503913 1.2477856
0.3420772 -0.042435832 1.0601292
0.32491648 0.091057412 1.0079248
0.38339207 -0.052886318 1.1641736
0.34512651 0.075038731 1.0206908
0.36032495 0.003881691 1.0335144
0.57125998 0.27904004 1.6360775
0.4169268 -0.060726449 1.1466373
0.3868939 0.085686438 1.0063518
0.42961434 -0.0068870522 1.144938
0.3920289 0.021788063 1.0272647
0.38537389 0.046947803 1.005605
0.69429332 0.22149962 1.7995526
0 0 0 1 0 0 0 1 0 0 0 1 0 0 0 0 0 176 1 0 0
