ply
format ascii 1.0
comment PCL generated
element vertex 81
property float x
property float y
property float z
element camera 1
property float view_px
property float view_py
property float view_pz
property float x_axisx
property float x_axisy
property float x_axisz
property float y_axisx
property float y_axisy
property float y_axisz
property float z_axisx
property float z_axisy
property float z_axisz
property float focal
property float scalex
property float scaley
property float centerx
property float centery
property int viewportx
property int viewporty
property float k1
property float k2
end_header
-0.5014832 0.40044269 2.1446011
-0.51086074 0.39659342 2.1459556
-0.3333903 0.13931125 2.2130427
-0.28973389 0.080652021 2.1632354
-0.2342139 0.36428228 2.1691329
-0.25110784 0.18727279 2.1317568
-0.20919527 0.45466143 1.783484
-0.24894561 0.094453469 2.1200073
-0.25055823 0.10733772 2.1546767
-0.19728349 0.51942122 1.763562
-0.23572116 0.27218303 2.1422834
-0.16978306 0.62826276 1.7273449
-0.1745663 0.4206115 1.8002518
-0.16197677 0.46220744 1.794459
-0.20557177 0.33437678 2.1722662
-0.15241756 0.51300919 1.7441303
-0.16180865 0.52851707 1.7303175
-0.19051225 0.3473697 2.1624467
-0.15429653 0.62157285 1.7288181
-0.14564349 0.41816965 1.7785566
-0.11439808 0.44032148 1.7690049
-0.1128324 0.50649095 1.7119023
-0.08346954 0.48160163 1.7525389
-0.080363505 0.5317207 1.6708697
-0.062468193 0.43810287 1.7490304
-0.048345875 0.49946254 1.7193599
-0.058297627 0.37510934 1.7656697
-0.048608389 0.54208434 1.7005095
-0.049284607 0.4653933 1.7249964
-0.032409653 0.67273831 1.7799124
-0.034527387 0.41339108 1.7667267
-0.016371163 0.6192624 1.7495521
-0.02827907 0.76911628 1.7514418
-0.012617108 0.50694412 1.7340873
0.0019361217 0.73105758 1.7299591
0.0028949024 0.53074259 1.6905129
0.019871889 0.63793856 1.7431941
0.051108096 0.39909545 1.7253731
0.0099398112 0.5302726 1.6726584
0.093589254 0.64844853 1.7727638
0.11325199 0.63100165 1.8364129
0.12288199 0.61610043 1.9306109
0.11094451 0.69907248 1.7140898
0.1054352 0.6929881 1.726958
0.13204227 0.7228176 1.8277954
0.19260076 0.79023224 1.7390985
0.20140024 0.68100095 1.8766994
0.20288968 0.77099019 1.8010166
0.19531259 0.79411292 1.7704039
0.24157007 0.76342839 1.7893277
0.27669692 0.8005476 1.7740669
0.28372723 0.7146489 1.834445
0.37727392 0.17367736 1.8248111
0.40666047 0.171269 1.8354535
0.6474582 0.76849294 2.1667616
0.63647866 0.75980014 2.1864791
0.59343898 0.40865326 2.1669409
0.64610279 0.76847595 2.160687
0.43620852 0.64235073 1.8234881
0.47841471 0.47003317 1.9327533
0.48169309 0.19965672 1.8991528
0.58554655 0.40133166 2.1208403
0.50466043 0.44090232 1.8723928
0.59318161 0.79963452 2.1100852
0.53413755 0.49200839 1.7991514
0.53893274 0.5876345 1.7846507
0.35136631 0.23626275 1.1193618
0.39091173 0.19149783 1.2225181
0.55930197 0.48918831 1.7707467
0.67011589 0.76612949 2.1203279
0.8864944 0.25847739 2.1884203
0.70169282 0.77529711 2.1296723
0.60582656 0.35951644 1.7755288
0.63779789 0.4311232 1.7271916
0.6368407 0.50182629 1.7205256
0.66738373 0.38967451 1.7227086
0.88625729 0.26320314 2.201509
0.88337404 0.27188683 2.1949775
0.88784373 0.25713575 2.1877069
0.88151473 0.24211888 2.1860237
0.67959285 0.48918301 1.6924803
0 0 0 1 0 0 0 1 0 0 0 1 0 0 0 0 0 81 1 0 0
