ply
format ascii 1.0
comment PCL generated
element vertex 47
property float x
property float y
property float z
element camera 1
property float view_px
property float view_py
property float view_pz
property float x_axisx
property float x_axisy
property float x_axisz
property float y_axisx
property float y_axisy
property float y_axisz
property float z_axisx
property float z_axisy
property float z_axisz
property float focal
property float scalex
property float scaley
property float centerx
property float centery
property int viewportx
property int viewporty
property float k1
property float k2
end_header
-0.50907296 -0.013540925 1.8905214
-0.48287249 0.18026826 2.1568234
-0.50138468 0.16149287 2.1825035
-0.48424751 0.20186417 2.1686461
-0.49596915 0.18733808 2.1601899
-0.3813183 0.49898592 2.2151935
-0.46190915 0.087142855 2.0408857
-0.45846847 0.14405252 2.146781
-0.49356189 0.87299526 2.1437533
-0.44602528 0.18075615 2.1691523
-0.44991356 0.17287745 2.1667306
-0.48492277 0.875 2.1507621
-0.30543223 -0.013028373 2.0693345
-0.3719157 0.49602881 2.2105262
-0.34938657 0.55685771 2.1823843
-0.29983976 0.18009146 2.0360339
-0.28433013 0.23887959 2.1389942
-0.27346608 0.15684278 2.0030546
-0.2565254 0.27165836 2.2089491
-0.33271232 0.57355773 2.1827059
-0.20217372 0.034697227 2.0962219
-0.29526117 1.1035361 2.1801007
-0.24354613 0.9142819 2.1846774
-0.27099231 0.4020471 2.1764832
-0.18441907 -0.022806993 1.9980801
-0.19169846 0.1331946 2.1620533
-0.18089288 0.089960873 2.0555899
-0.18455902 0.28447124 2.2113426
-0.13218072 -0.052063014 1.8581573
-0.14865036 0.046975378 2.0847552
-0.12385771 -0.088530563 1.874772
-0.13844728 0.13296276 2.072633
-0.13323709 0.096991643 2.0531774
-0.2407876 0.62823331 2.160877
-0.095357314 0.13474725 2.0737822
-0.086539887 0.029389974 1.9661151
-0.069613799 -0.022618853 1.9382432
-0.061465882 0.098736912 2.0319662
-0.025428804 -0.010423197 1.9462072
0.26321539 0.41198474 2.2115359
0.25888222 0.42404693 2.1684146
0.27497309 0.41855437 2.2017014
0.27463543 0.42256266 2.200979
0.34285074 0.35757101 2.1840405
0.563187 0.40774047 2.1805596
0.72338033 0.00054944685 2.2059622
0.71602374 -0.0037479098 2.2197428
0 0 0 1 0 0 0 1 0 0 0 1 0 0 0 0 0 47 1 0 0
